23.9452	21.0149	10.649	0.254879	0.263098	-0.930492
-12.1666	-1.32648	-9.84219	0.503565	0.805114	0.31339
12.6203	42.1061	-17.1715	-0.255424	0.620866	0.741136
-15.3442	-38.0258	-21.6423	-0.216993	0.712215	0.667581
10.686	15.8775	4.61825	0.23424	-0.328131	0.915129
-7.70887	3.96223	18.2547	-0.578328	-0.788501	-0.209291
40.4467	23.5401	-47.3948	-0.0183588	-0.151822	0.988237
5.18175	27.3859	-44.3516	-0.397576	0.903616	0.159411
23.5697	-47.5955	14.4129	0.691968	0.37143	0.619048
25.6248	9.01893	0.154452	-0.571145	-0.185779	-0.79955
2.98541	-16.0374	-27.8321	0.402878	-0.126118	-0.906523
-35.367	20.7975	19.8429	0.142663	-0.561973	0.81476
3.79227	-15.5837	12.9475	0.425459	0.35408	-0.832834
35.6223	18.0736	23.9231	-0.0287419	0.524746	0.850774
-35.0215	-20.2419	-9.20085	-0.280437	0.959863	-0.00420169
18.5982	21.0507	43.7629	0.306542	-0.862359	0.40295
-12.1486	12.4959	18.3015	-0.107897	0.234606	0.966084
-10.5419	-31.3238	-3.31406	0.672294	-0.681677	-0.288683
-5.89199	41.2474	-1.90803	0.038808	-0.925031	-0.377903
-40.4806	17.8707	-41.8906	-0.440261	0.50022	-0.745621
8.67533	-28.1454	-8.9265	-0.247888	-0.647178	-0.720911
29.8447	-14.5109	-37.1305	0.653566	0.581752	-0.484165
0.686063	38.2829	-3.71273	-0.077591	0.207538	0.975145
-35.368	24.9036	-34.6407	0.91403	0.357736	0.191243
37.5567	38.8836	-5.88107	0.185836	0.980611	-0.0621892
-20.6457	8.48029	-33.8318	-0.382464	0.897449	-0.219789
-25.8843	45.3332	27.6656	-0.306386	-0.643791	0.701186
41.4187	-14.2103	45.3433	-0.609853	-0.658901	0.440374
-10.8969	28.8992	37.5891	0.706415	0.485802	-0.514757
36.1966	37.4201	6.45838	-0.0826824	-0.977877	0.192148
43.3075	-2.90604	27.3145	-0.833429	0.324542	-0.447291
-14.6205	-22.0628	-36.1979	0.42644	-0.885051	-0.186638
-2.74952	27.6247	-46.9165	0.282263	0.772691	-0.568574
42.5392	41.2583	26.9886	0.273109	-0.760384	-0.58926
-41.1029	29.8134	16.8707	0.275527	0.333833	0.901466
2.0175	-39.8337	-23.6505	-0.224656	0.966817	0.121635
17.1872	-16.7165	-27.3188	-0.604522	0.0333654	0.79589
-4.14877	-24.2993	7.47242	0.191528	-0.96325	-0.188324
-7.80701	13.8053	-12.6298	-0.465526	-0.88047	-0.089766
-19.2194	1.00044	-24.2112	0.312233	0.861002	0.401478
36.2405	-4.69356	21.8843	-0.474365	0.707186	0.524277
14.5535	29.6874	48.8229	0.453005	-0.746805	-0.486897
27.3572	-22.0636	27.4461	0.356331	-0.408463	0.840349
29.4422	-28.5258	19.7029	-0.951804	-0.303379	-0.0450611
7.42928	-20.6273	0.514826	-0.186849	-0.90623	-0.379256
-24.7015	30.3917	9.6826	0.845562	-0.526794	-0.0866843
0.649482	-1.42261	41.9676	0.62386	-0.315862	-0.714864
22.3322	43.4301	-31.3332	-0.0918992	-0.0472718	-0.994646
-19.1969	-13.3784	31.4736	0.857136	0.498768	0.12864
17.1747	16.4038	-16.5275	0.178278	0.213146	0.960617
41.965	3.64277	27.7805	-0.805282	-0.409018	-0.429214
14.8478	-30.8052	8.46644	0.200105	0.536161	0.820054
14.6692	45.5535	35.4044	0.131571	-0.811193	0.569785
-6.88616	25.9941	-42.123	-0.0672802	-0.140237	0.987829
-36.1848	-15.5781	-13.7487	0.08534	-0.991324	0.099974
13.3315	8.7219	-32.3585	0.561384	0.53536	0.63106
-25.9874	-39.6301	15.2204	0.428904	0.645545	0.631912
-33.0213	31.7035	9.64902	0.105329	0.228906	-0.967733
-15.353	-36.4949	45.2721	-0.493404	0.86023	-0.128674
-32.8809	29.6813	12.6744	-0.360241	0.498767	-0.788326
-0.406843	22.6449	-32.6843	-0.133408	0.087725	-0.987171
-21.6279	-11.5088	-14.488	-0.644145	-0.736039	-0.208145
35.8401	-45.8411	-17.9361	0.0240226	0.507314	0.861427
22.2429	-3.7258	-40.9434	-0.075357	0.476093	-0.876161
29.1215	9.09092	-7.52002	0.871784	0.475862	0.1164
-33.6288	-26.579	-47.7996	-0.744908	-0.132452	0.653887
-16.9858	-3.56489	-38.4282	0.824101	-0.232792	-0.516397
47.2361	12.4153	42.2768	0.603914	0.76734	-0.215587
7.88366	46.0638	-43.2196	0.54281	0.56926	-0.617495
4.15429	-35.8185	35.4632	-0.271636	-0.187105	0.944037
-32.1728	12.7761	9.10659	0.940503	0.339227	0.0194489
-15.8557	40.1498	46.5992	0.363281	-0.464446	-0.807662
18.6578	26.9883	-48.2434	0.36692	-0.919688	-0.139801
-48.2798	0.229792	-2.96769	0.112967	-0.916157	-0.38457
-40.2217	-19.6502	-42.8783	0.380697	0.831589	-0.404388
1.25978	-4.27749	-20.4558	0.0787108	-0.860171	0.503895
2.46166	27.7383	24.9808	0.264389	0.3233	-0.908612
13.0349	25.9729	-11.6054	0.561396	-0.780017	0.276419
6.31019	-15.1449	-14.543	-0.581087	-0.638766	-0.504296
12.0921	38.0109	-1.36005	-0.288082	0.909889	-0.298515
-1.4462	-43.1635	-37.5854	-0.00320894	-0.650377	-0.759605
-41.3411	-10.0176	-46.4372	-0.270242	-0.666303	0.694989
-43.7434	-40.3614	29.5527	0.825405	0.464384	-0.32102
-42.9852	-39.6396	-19.219	-0.26004	0.12004	-0.958107
3.04856	-30.8598	10.1322	0.117678	-0.938501	-0.324603
9.17179	19.4015	-43.1468	-0.349686	0.577084	-0.738034
37.7175	-27.1384	33.593	0.87358	0.1595	-0.459803
13.6968	34.898	10.5644	-0.71075	0.69396	0.115124
-46.9101	-7.79327	44.421	0.529638	0.250503	-0.81039
-12.4516	-44.7027	33.4303	-0.199462	-0.700268	0.685448
35.1899	2.85261	39.2684	-0.232667	0.872052	0.430571
46.6059	10.513	-19.7508	-0.805191	-0.514649	0.294626
-48.8327	15.7711	-11.1106	-0.154814	0.116828	-0.981012
29.7214	21.7874	-1.74876	-0.00846859	-0.512636	0.858565
-38.4991	-24.1655	16.3929	0.597894	0.374364	-0.708784
20.6346	34.0077	-13.2071	0.170298	-0.829741	-0.531535
26.4894	22.7237	8.65602	-0.0141752	-0.971402	-0.237019
11.0809	-12.581	-5.44745	0.397594	0.167624	-0.90212
-27.3562	-10.4896	35.7608	0.858373	0.348468	-0.376518
-31.9367	26.0603	40.0596	0.673447	0.265281	0.689996
-47.5079	12.2487	-6.0893	-0.216822	-0.963359	0.157883
40.7619	9.85313	-44.5778	0.723105	0.304781	0.619862
-27.9904	10.0219	20.1949	0.399612	-0.31137	0.862183
9.9005	-9.25817	-7.01925	0.238161	-0.0310846	0.970728
-40.8498	1.24423	17.8167	-0.0188316	-0.330541	-0.943604
24.5447	-27.1226	2.82296	-0.22331	0.648464	0.727755
-37.664	48.3682	-23.4548	0.203423	-0.87086	0.447462
19.9936	10.4476	12.9657	0.444053	-0.3663	-0.817705
-34.4554	32.0929	-46.5254	-0.41663	-0.863174	0.28522
-47.6961	-48.8453	28.5364	0.0714432	-0.69399	-0.716431
41.365	-47.3517	-8.21635	-0.281206	-0.931382	-0.231195
-13.7258	42.4117	-47.3647	-0.152053	0.120532	-0.980995
-9.30212	-34.5802	11.6587	0.908923	-0.408657	-0.0828104
-38.1088	24.3218	-46.601	-0.809226	0.582953	-0.0729314
3.87349	32.4736	3.64472	0.166651	-0.981102	0.098319
-27.3113	8.01672	25.5236	-0.635783	-0.141178	0.758847
24.5132	19.3543	24.8903	-0.600084	0.475038	0.643613
-47.9432	-9.65367	-13.6636	-0.0576243	-0.990582	0.124207
14.024	4.89245	-30.5721	-0.688797	0.622951	-0.370798
16.5001	6.19784	-30.416	-0.565655	0.597086	-0.568791
-3.96493	-1.43869	-28.7662	0.498768	-0.503348	0.7056
36.8202	33.837	-35.356	0.545388	0.675346	0.496447
38.457	-24.4666	-20.9347	-0.611512	-0.297126	-0.733327
1.11416	-13.5739	-45.6143	0.951221	-0.138675	-0.275586
3.51466	39.3011	35.8607	0.475653	-0.836471	0.27216
-41.8421	-37.0117	-5.12406	0.966304	-0.124256	0.225426
32.683	36.5029	-34.7713	-0.159579	0.0230574	-0.986916
8.57178	37.5613	4.57654	-0.457406	0.837612	0.298642
43.9097	2.5838	-39.5325	0.0149707	0.984313	0.175795
-35.6639	-29.9176	15.6668	-0.0431769	0.499188	-0.865417
-17.0784	15.119	-34.7734	-0.14718	0.241805	0.959098
3.15694	2.93772	48.0651	-0.22755	0.228378	0.946607
16.8024	-7.60678	-25.403	-0.556201	0.814173	-0.166624
44.8693	42.5089	10.0246	0.108482	-0.247284	0.962851
48.2564	-2.97796	0.324194	-0.195813	0.0281574	-0.980237
35.1156	4.18142	12.314	0.731029	-0.19406	0.65417
-19.0099	-12.1371	-0.18457	-0.584715	-0.637295	-0.50196
-4.77972	45.4362	-11.6248	0.375575	-0.47397	-0.796427
48.7983	40.3444	39.9605	0.161017	-0.961078	-0.224505
-39.7357	-44.321	-38.9586	-0.40956	-0.801838	-0.435104
24.9326	-12.3979	25.1619	0.983576	-0.16701	0.0684487
39.1608	39.7606	-20.9018	0.246244	0.858709	0.449425
38.2244	7.56149	20.4929	-0.916058	-0.0921276	-0.390322
-36.1801	3.42924	14.0003	0.0181921	-0.485797	-0.873882
22.846	2.68415	-37.9792	0.40556	0.215092	0.888401
-25.8313	-11.2017	15.2037	-0.201592	0.381803	-0.901991
35.4842	18.7898	-45.9349	0.511347	-0.827388	0.232278
-13.7019	-34.9914	48.5028	0.0998079	-0.982143	0.15948
23.6748	-35.1946	39.8456	0.845981	0.306444	0.436359
14.6338	-25.9287	44.5261	0.161547	0.0816333	-0.983483
24.6768	48.0054	-16.8732	-0.207889	0.54356	-0.813219
0.837219	38.1647	-26.1142	0.253518	-0.725764	0.639528
28.9369	27.3876	30.4488	-0.890188	0.00825625	-0.455518
0.428264	40.209	-15.1234	0.226513	-0.237865	0.944517
-34.573	14.0535	36.5622	-0.144852	0.934817	0.324245
-23.5507	37.2237	-23.641	0.170735	0.959137	0.225622
40.6545	23.7064	44.1503	-0.353138	-0.736719	-0.576662
43.7211	-38.997	-39.8425	-0.128225	-0.408574	-0.903674
43.2224	33.6793	-26.0356	0.984342	0.173801	-0.029393
34.0665	-0.688374	-2.96285	0.678957	0.367446	-0.635611
29.5912	-25.0131	-3.95895	0.0927515	-0.887774	0.450837
-36.2836	24.8256	-14.7958	-0.479623	-0.836874	0.263824
-13.3963	4.761	-36.4097	-0.0783387	0.352619	-0.932482
-31.9489	-43.8122	-45.2022	0.282514	-0.888466	-0.361683
1.92912	-29.3837	17.8528	-0.00389039	-0.373821	0.927493
-10.5102	-3.93288	6.07494	-0.399846	-0.375471	-0.836149
14.8503	-12.2798	-19.2202	-0.210879	-0.880518	-0.424521
9.99915	-17.5602	-9.21573	-0.595845	-0.800543	0.0640299
19.1581	-23.3393	-24.5379	0.0111766	-0.452131	-0.891882
42.124	-38.2743	23.7752	0.166186	-0.872144	0.46016
-9.84035	40.3184	47.7636	-0.487344	0.827761	-0.278043
35.2022	-44.9667	23.5877	-0.222589	-0.583813	-0.78078
-28.5951	-9.36144	-20.6528	-0.184511	-0.155378	-0.970471
-16.0033	7.69112	-15.4635	0.359668	0.930165	-0.0736975
-12.204	-39.3813	4.15427	0.662874	0.734065	-0.147465
-43.3527	-0.889927	-48.7801	-0.368879	-0.872735	0.319785
11.7237	-35.0411	-12.0584	-0.838924	0.328373	-0.434024
41.505	23.9595	19.3829	0.0277454	-0.199908	-0.979422
-16.7122	-5.88385	45.0451	-0.0918738	0.818943	-0.566473
7.75134	-12.7614	-42.2307	-0.688913	0.724301	-0.0280553
-17.475	26.3998	47.0892	-0.96009	0.2473	0.130654
-18.7129	12.6005	-46.879	-0.989043	0.0861012	0.119918
-44.1267	33.0069	-7.23896	0.0554799	0.0139263	-0.998363
-15.778	-31.9978	-48.5493	0.328024	-0.941941	-0.0717434
17.76	4.79969	-38.9291	0.229951	0.573648	0.786162
-27.0872	10.4485	9.18247	0.0563046	0.440502	0.895984
-26.8658	-26.8293	23.1429	-0.381381	0.446083	-0.809666
10.0772	-34.3258	-1.89909	0.835273	0.38184	-0.395623
-19.5414	-2.03652	41.2186	0.229356	0.969776	-0.0832514
-23.4978	-43.2867	-20.5443	0.48833	-0.0454237	-0.871476
-16.727	-11.7601	-43.146	-0.670349	0.576964	0.466632
-18.6394	18.5285	18.456	-0.0715575	0.947616	0.311292
-16.5169	23.4033	2.46144	0.379862	0.924358	0.0355842
25.2457	-41.3762	19.4651	-0.232381	0.962394	-0.140699
25.6978	25.3853	-24.7367	-0.766617	0.535483	0.35434
35.7702	47.2996	34.7133	-0.100612	0.134091	-0.985848
-4.0488	-28.5677	-41.1176	0.742176	-0.623022	-0.247017
-29.9074	30.5111	-26.4419	-0.891205	-0.379541	-0.2484
17.195	-38.0318	20.5231	0.839102	0.287399	0.461854
9.41204	-12.5282	26.238	-0.237757	0.970809	0.0316338
37.8692	19.7463	-34.5237	-0.249424	0.176586	-0.952158
43.7248	-47.8946	33.0063	0.535175	-0.556009	0.635957
13.1793	-15.4099	7.40806	0.308217	0.951225	-0.0131933
-33.3608	-39.1658	15.0334	-0.28612	-0.116037	-0.951142
35.1058	35.5336	-8.58278	0.265805	-0.189628	-0.945193
-38.6324	22.3023	-10.2847	-0.506012	0.0416291	-0.861521
45.0824	-30.748	10.1492	-0.308501	0.864264	0.397335
-45.0367	-11.6539	-8.34129	0.0237821	-0.982965	-0.182248
-22.477	-43.4604	2.62838	-0.261172	0.961161	-0.0892129
47.0476	14.9531	39.1017	0.050591	0.153127	-0.986911
24.284	3.82084	9.84652	-0.594762	0.639908	-0.486596
38.7619	-1.4559	10.9535	0.239313	0.766746	0.595676
22.7666	-37.2781	44.545	0.445296	0.195362	0.87381
-18.8268	-21.6374	-43.6222	-0.0674504	0.0914285	0.993525
45.2081	-35.5331	40.9128	0.0775801	-0.979677	0.184969
-12.3762	-25.164	14.2136	-0.0687005	0.947859	-0.311198
26.3407	-29.0832	32.4671	0.0799065	0.993514	-0.0809013
-12.5117	-25.1184	-28.1883	-0.422517	0.0992186	0.900908
28.1485	1.4061	-22.6473	0.217714	-0.193137	-0.956712
-18.2246	-0.547814	41.3073	0.135812	0.990195	-0.0326882
-28.1244	-25.2653	-3.87332	0.654393	0.0108896	-0.756076
30.7237	-35.5049	43.6723	0.0842461	0.316271	-0.944921
-7.32438	36.2632	-42.6074	-0.41964	-0.865021	-0.275028
-11.7809	-31.5651	-15.2433	0.226548	0.863789	0.45005
-6.40159	-35.3585	-1.77494	-0.145459	0.851513	0.503754
-14.4903	1.26678	22.0625	0.676356	0.539882	-0.501069
48.7249	-21.3941	41.9809	0.105398	0.0619028	-0.992502
32.1905	15.0957	-32.139	-0.503079	0.0832021	0.860226
-44.9993	-5.75724	18.2686	-0.387835	-0.878182	0.279965
-18.6451	25.0197	-31.2807	-0.832166	0.493999	-0.251922
-26.3392	45.8968	-7.54447	-0.306335	0.892849	-0.330121
18.7889	27.6189	5.95211	-0.259086	-0.762581	-0.592743
13.4597	-28.7069	-6.78619	0.679376	0.724938	-0.113631
19.8539	8.51371	10.6502	0.330113	-0.794716	-0.509364
-44.391	-46.8894	24.2932	0.00795684	-0.432405	0.901645
2.83561	-12.3781	-23.4415	-0.154108	-0.210709	-0.965325
-24.1034	-12.6548	4.16589	0.705473	0.212202	0.676224
-31.124	-29.4658	-29.7399	-0.438394	0.286576	-0.851871
-14.2615	-25.4636	13.5044	0.473444	0.867026	-0.155295
-44.9943	4.89283	-10.4774	-0.756629	0.5833	-0.295422
-27.2735	27.5551	-13.5821	-0.206223	0.460551	0.863345
14.1835	-2.65747	-34.9647	0.466587	0.883499	-0.0415412
-28.8659	-38.1992	-14.6701	-0.863064	-0.453314	-0.222771
13.3494	30.6561	42.8451	0.882348	-0.0533048	-0.467568
-25.0019	35.2667	44.9572	-0.635119	-0.687187	0.3527
48.2928	-10.8992	-16.4225	0.65982	-0.609044	0.440118
-24.1502	13.9989	19.9243	0.551411	-0.830869	0.0748558
29.0172	31.8764	39.46	-0.292246	0.93018	-0.222164
48.2788	-31.3865	-35.0051	0.385571	-0.0185834	-0.922491
12.7817	-27.3794	18.8892	-0.442421	0.451107	-0.775091
-46.6972	-5.65143	-2.55719	0.496941	0.825037	0.269005
-11.2779	-40.4694	43.7868	0.44294	-0.5197	0.730559
2.7589	-20.3338	-43.4139	-0.297886	-0.792212	-0.532602
37.0903	42.0171	36.2437	-0.53006	-0.153203	0.834005
30.9338	-31.9863	22.5089	0.312632	-0.0181533	-0.949701
26.8895	-32.6949	-37.3919	0.10114	0.289647	0.951775
-38.5344	-7.84365	25.6085	-0.197667	0.116417	-0.973332
30.3913	-27.828	8.48347	0.228439	-0.878662	-0.419248
20.8498	-28.5507	26.0984	0.394597	-0.77765	-0.489441
34.8462	33.2325	47.7205	-0.274273	0.944875	0.178844
4.73394	35.5368	-6.93239	0.132127	-0.967953	-0.213563
-46.8247	-24.7426	1.59968	-0.520999	-0.850705	-0.0697215
45.9636	27.0178	30.2674	-0.363735	-0.930565	0.0417731
-46.4518	15.1065	23.283	-0.78263	-0.00199763	0.622485
38.7934	-2.96114	40.2982	-0.671326	0.48506	-0.560391
12.3008	-25.0731	-41.3982	-0.693372	0.719143	0.0454715
23.9104	-14.6061	-0.24036	-0.551677	-0.707919	0.441024
0.517482	-33.2162	20.9332	0.619831	-0.020167	0.784476
-40.0005	36.6351	41.384	0.0555576	-0.426468	-0.902795
35.0994	22.4798	25.615	-0.488808	0.230887	0.841284
33.8184	-21.7877	12.1502	0.117918	-0.974562	-0.19059
-22.1155	-19.611	36.4091	-0.329585	0.94276	0.0507591
28.4857	-22.6489	14.4254	0.240633	0.738084	-0.630339
9.75157	-20.0992	-19.4696	0.414595	0.566127	0.712468
-15.967	-30.3072	26.5708	0.907341	-0.413568	-0.0754569
-24.6702	30.9951	-47.5039	0.500554	0.712054	-0.492367
-17.0669	5.90399	-13.1084	-0.506473	0.113057	0.854812
31.6942	-42.58	2.67685	0.128274	-0.0344497	0.99114
3.62587	-33.5791	-9.68954	-0.134529	-0.782702	-0.607684
-3.99166	-47.4812	-36.2112	-0.0575875	0.992445	0.108334
-27.3782	35.3387	-8.99743	-0.237822	-0.0306829	-0.970824
33.7735	-35.7783	20.3931	0.789567	-0.613361	0.0192867
21.1811	41.7089	46.7457	0.267928	-0.314708	-0.910589
-13.395	2.45899	-22.3549	-0.0287744	0.705656	-0.70797
16.1369	35.4935	-3.66066	-0.939926	-0.333782	-0.0716093
-6.29385	-38.1782	-21.6671	0.0200856	0.430997	0.90213
-4.79622	-6.24362	33.2384	-0.748433	-0.535185	-0.391695
31.0969	-23.5509	39.6598	-0.503318	-0.811012	0.298213
-15.2278	29.0765	-42.9207	0.692599	-0.500668	0.519267
24.0842	-23.9167	-41.4004	0.251844	0.621443	0.741879
36.8745	-2.29339	42.9398	-0.531117	0.00507487	0.847284
-21.1245	-17.5213	-41.84	-0.383968	-0.899924	0.206652
48.2701	-45.3417	48.8704	0.0872206	0.895627	-0.436171
46.0144	-9.7352	2.32789	-0.216255	-0.0160963	0.976204
-25.3421	-42.5998	-11.1801	0.0164719	-0.432993	0.901247
19.9988	0.107839	-0.35676	-0.68109	0.152745	-0.716091
47.3332	44.3131	42.4011	-0.594938	-0.803105	-0.0327264
31.57	26.4085	-30.1513	-0.501542	0.499981	-0.706028
22.2284	-37.8208	47.9267	0.795205	0.345202	-0.498482
28.3091	35.2648	-24.9915	-0.329229	-0.809382	0.486323
35.9102	23.1378	21.7166	0.839029	-0.174138	0.515467
29.8485	-46.9882	-44.8063	-0.0878044	0.166772	0.982078
37.0099	-47.7196	-41.1465	-0.950813	0.235966	-0.200685
36.8788	47.2963	-1.88016	0.405904	0.762688	-0.503536
-9.79479	-27.0473	4.52154	0.069913	-0.993898	0.0853123
28.0266	41.953	-44.3721	-0.277679	0.863571	0.420879
-21.3316	40.2847	48.9425	-0.32281	0.51409	0.794673
-27.932	22.8532	26.3495	-0.720921	-0.332618	-0.607979
-9.08178	-3.91992	37.5301	-0.0533426	0.965643	0.254338
-10.1566	-24.6123	23.7935	0.668914	-0.217917	-0.71068
13.8534	-37.7036	-2.07021	-0.766834	0.453713	-0.453994
-13.4315	41.1464	-0.05688	0.288188	-0.569154	0.770072
-9.23629	29.1548	1.22507	0.0716376	0.613195	0.786676
-1.38124	17.0321	-0.480122	-0.166165	-0.134685	-0.976857
45.7401	-41.7642	21.4741	-0.45054	-0.560435	0.694929
1.26014	35.264	14.4256	0.103294	0.312362	-0.944331
5.88952	-35.0692	5.7088	0.119155	-0.721102	-0.682506
5.83051	-13.9997	-20.4395	0.529094	-0.520949	0.669829
-16.8215	25.9201	24.6421	-0.244111	-0.500906	0.830363
-28.2929	-33.238	-48.9717	0.2583	0.62117	-0.739885
44.5021	29.6168	-37.6738	-0.021824	0.938329	0.345053
-6.56959	-32.8162	-45.5289	0.881552	0.0149608	-0.47185
42.375	6.94901	32.6274	-0.452668	-0.600076	0.659546
-5.4014	-43.4337	0.657986	0.297103	0.133646	0.945446
43.12	-46.6951	7.89531	-0.9344	-0.353987	0.0398777
15.5926	3.56652	-5.84223	-0.962208	0.105851	0.250901
-18.9833	-39.5455	8.09011	-0.156402	0.322802	0.933455
35.727	15.2865	43.0919	-0.337553	0.816279	0.46877
-33.714	47.4665	20.0105	-0.27809	-0.955793	0.0955323
39.9296	-29.8278	35.7739	0.0558253	-0.940692	0.334637
39.9594	-34.3272	16.3893	-0.640345	-0.185384	-0.74538
-46.7158	8.10468	32.5746	-0.334566	-0.927281	-0.167972
-43.2433	1.47821	-9.47791	-0.802947	0.515559	-0.299123
38.3856	45.0783	-3.91014	-0.538142	0.762714	-0.358707
-9.9579	39.1968	-1.60377	-0.343926	-0.0915622	0.934522
46.9389	5.7879	-47.0387	-0.494785	0.765116	0.41205
-7.90482	35.8061	-37.5827	0.0891172	-0.939609	0.330444
-48.8162	22.5317	26.7053	0.289387	-0.0196713	-0.95701
43.2772	37.8192	25.1704	0.923082	-0.332073	0.194031
14.2862	28.7473	44.344	0.203835	0.011801	-0.978934
1.05867	19.7053	-38.9847	-0.369353	0.874867	-0.313346
-31.5535	21.991	18.1215	-0.193782	0.0718972	0.978407
-47.9805	27.7492	-29.4018	-0.276822	-0.906128	0.319847
-8.45689	17.1333	-33.325	0.209852	0.820321	0.53201
36.6345	-41.8261	-43.1297	0.936068	0.024986	0.350931
-13.9708	-43.8887	11.6597	-0.669845	0.13152	0.73076
-12.008	-2.79201	-1.53567	0.069094	-0.847852	0.525712
-0.589261	-2.60672	-28.0055	0.305512	0.735683	0.60451
-22.8854	-8.33099	-39.1878	0.413697	0.767651	-0.489455
-46.7166	-43.0463	38.5611	0.057035	-0.925641	0.374079
46.629	7.01391	9.26485	-0.156485	0.932094	-0.32667
-41.3573	24.4619	-17.7457	-0.265637	-0.603581	0.751749
25.7657	25.4829	-38.998	0.104953	-0.00832922	0.994442
45.3654	-31.9755	27.1368	0.0974732	-0.277316	-0.955822
-36.9611	-44.3425	34.3122	-0.0683781	-0.406939	0.910892
-31.0893	-9.31184	39.425	0.569744	-0.607232	-0.553769
29.5719	27.6816	-12.3685	0.777653	-0.439358	-0.449689
-20.9653	-21.9091	34.0263	0.227155	0.344267	0.910978
0.0307266	4.20693	-23.3062	-0.434731	0.868872	0.236792
9.84444	6.49186	-17.351	0.509842	0.478279	-0.71506
-0.596005	4.11932	38.6644	0.062779	0.0788849	-0.994905
-40.3327	11.7636	14.1248	0.39463	0.142064	-0.907791
-9.07685	-11.4722	-9.39383	0.0755104	-0.992144	0.0997383
0.926637	-15.1083	7.63216	-0.504071	0.753038	0.422902
-20.9381	-3.06789	12.2911	0.711044	0.183347	0.678823
-35.6274	14.8443	-46.0222	-0.857234	0.215437	-0.467694
-45.2039	-4.58528	30.6609	-0.462786	0.217518	0.859369
-8.57087	23.451	-40.2498	0.332111	-0.70296	-0.628927
-23.5461	-25.5198	12.9587	-0.084903	0.918945	-0.385138
2.1492	33.3261	-29.551	0.703919	-0.438966	-0.558397
33.7997	-16.2714	23.5699	0.588923	-0.807993	-0.0178107
23.4627	-7.60254	-13.6681	0.829328	-0.321707	-0.456859
-11.4141	32.3221	23.8612	0.532134	-0.723257	-0.44015
28.1936	-15.7528	-40.2486	-0.0640107	0.941554	0.330726
-13.1757	12.3107	5.68501	0.0475595	0.727094	0.684888
48.1169	25.6848	-28.4722	-0.332283	-0.64891	-0.684473
-46.9068	29.4824	15.944	-0.88889	0.143123	-0.435189
32.7555	-28.0899	-9.6065	-0.199472	0.547094	-0.812957
41.5073	-2.63452	13.8752	0.0666102	0.954269	-0.291433
5.46445	48.5162	-1.80021	0.262166	-0.699882	-0.664405
24.915	33.3144	30.9299	0.997684	-0.0622851	0.0273423
-0.516669	7.77556	-25.6741	-0.199371	0.930274	0.307964
34.8168	45.363	-42.3535	-0.27017	0.189606	-0.943959
9.67646	24.5551	-9.1048	0.517243	-0.695628	0.498559
18.4294	-37.6221	-45.7956	-0.00273886	0.994708	-0.102706
-24.8871	-38.5068	28.8907	-0.997354	-0.0474211	0.0551012
-4.35781	-36.4121	9.3716	-0.359651	-0.828266	0.429681
-37.4153	45.3449	30.2832	0.031267	0.997979	0.0553161
1.97973	37.8507	-21.3528	0.692253	0.256162	0.67466
-33.1466	-5.68633	-21.8382	0.493504	0.304388	0.814741
14.0547	-29.7728	-37.5253	-0.827344	-0.493502	0.268249
-4.01689	18.712	19.2518	0.6058	0.743716	0.282652
19.3105	4.52723	15.6133	0.181682	0.938743	-0.292837
25.9584	-34.7978	-8.8331	-0.293247	-0.676341	-0.675699
-32.1479	32.6331	2.54626	0.120939	-0.896989	-0.425187
-28.942	-41.2556	13.041	0.114997	0.448338	-0.886436
48.9502	3.3881	25.6304	0.574743	0.806274	0.139972
9.32028	14.9743	21.9738	0.694561	-0.0502009	0.71768
-9.39804	-32.0474	10.8231	0.44528	0.542786	0.712116
18.2506	-16.1925	-43.8648	-0.252748	-0.179014	0.950827
45.4139	46.8637	-24.6361	0.422655	-0.423983	0.801001
-41.1128	-6.15472	43.0774	-0.495531	-0.855116	-0.152398
27.1405	-35.8458	-1.39688	-0.700664	0.367398	0.611628
-6.24771	39.1142	12.8068	0.235599	-0.771629	-0.590832
33.9207	-42.0352	-3.56164	-0.522187	0.783224	-0.337462
-12.5346	-21.9757	4.18428	0.0447911	-0.18594	-0.98154
-48.495	-22.027	-41.4291	-0.740633	-0.0083274	0.671858
26.1369	36.2948	22.5467	-0.440315	-0.71552	0.54236
-0.890793	-22.1048	39.5008	0.486895	0.385817	0.783632
-39.0692	45.1474	-25.6932	0.0542682	0.666975	0.743101
-33.9325	41.5598	-27.8311	-0.414932	-0.908749	-0.0447938
-9.56707	-48.5545	15.0157	0.267659	0.43117	0.861656
-15.4912	27.5875	28.1714	-0.484757	-0.135731	-0.864053
32.1134	-27.6617	18.2841	0.142216	0.939579	-0.311393
-4.08126	-42.7425	25.2504	-0.726863	-0.369977	-0.578608
41.3586	-6.2756	-45.7267	0.147582	0.834825	-0.530365
-3.45863	-5.76914	-18.7522	-0.0786804	-0.0779153	0.99385
4.11375	-28.6338	-31.459	0.398786	-0.165699	-0.90195
-22.341	19.4769	-4.56222	-0.272499	0.644255	-0.714619
-31.8418	29.4092	-8.41637	-0.185136	-0.964677	0.187411
-8.5335	44.4782	-15.8581	-0.263583	0.656564	0.706716
12.6369	-14.0903	-15.4111	-0.691866	0.219979	-0.687699
-21.3489	19.42	-36.8251	-0.414714	-0.900841	-0.128445
-42.1789	2.53189	-15.4853	0.322977	0.684276	-0.653799
25.1067	47.4521	-9.22638	0.690541	0.109081	-0.715021
1.35563	39.8092	33.4995	0.0967319	-0.696213	0.711288
4.63039	-12.6509	-21.2711	0.971596	-0.217024	0.0943518
34.8796	40.4644	-0.903412	0.597988	-0.582463	-0.550588
-45.5808	-30.8782	-30.428	0.614174	-0.0186245	0.788951
-1.14154	-13.7184	47.9827	-0.89644	0.126641	0.424686
39.4436	26.7496	43.4594	0.285951	0.30269	0.909181
-25.416	-9.615	-19.6324	-0.82275	0.525127	-0.217543
8.17445	18.0376	48.7891	-0.350385	0.575966	0.738576
20.3509	24.8602	2.31945	-0.765775	-0.0887181	0.63696
-44.136	0.965404	0.770081	-0.643971	-0.0162055	-0.764878
-4.36087	-46.6805	-8.42219	-0.117274	-0.314827	-0.941876
-19.8629	6.95142	27.9284	-0.334309	-0.815168	-0.47301
7.86752	-7.17044	19.3913	-0.358107	-0.721318	0.59284
-42.0374	-3.74976	37.5146	0.911673	0.40546	0.066735
-23.4639	44.1102	-25.2054	-0.441319	0.470725	-0.763973
-24.4827	34.5523	-47.4573	-0.392146	0.0375737	0.919135
-30.0247	-39.8652	-8.07078	0.858945	0.429708	-0.278503
-0.655635	17.3108	-39.0347	0.185886	-0.682156	0.707184
-0.868076	-11.3399	34.827	-0.282585	-0.835427	-0.471389
-47.5501	-6.47435	-13.209	-0.0209463	-0.975451	0.219219
2.22146	38.1663	-10.888	0.339109	0.358848	0.869617
42.8008	-30.6981	45.0649	-0.275139	0.448512	-0.850374
21.7277	26.171	-11.107	0.916711	-0.39848	0.0292155
-7.88257	33.1351	34.1447	-0.909052	0.349523	0.226844
-19.3695	-39.3303	29.2534	-0.991414	0.128299	-0.0252523
4.42665	-14.8115	14.8042	-0.173067	0.731452	0.659565
5.97087	4.16529	23.9406	-0.321033	0.939623	0.11852
46.9016	-45.4918	-7.75016	-0.395891	0.59898	-0.696055
-41.1346	2.64158	29.9115	0.85877	-0.338293	-0.384802
42.694	4.09295	-25.5644	-0.0952613	0.945301	-0.31198
-19.5166	-42.6871	-36.3996	-0.717899	0.412703	0.560623
18.5969	-48.8878	-18.0962	-0.960395	-0.277574	-0.02438
14.6603	21.8413	-40.9267	-0.819189	0.350688	0.453815
-45.4482	-35.0427	41.2098	0.00798371	-0.864257	0.502988
37.698	-5.41073	-47.122	-0.343184	-0.169654	-0.923819
17.95	48.0174	-12.9319	0.698094	-0.67761	-0.231321
-16.2473	4.98679	40.2348	0.0683408	-0.814751	0.57577
-41.3082	2.88687	43.7445	0.50302	-0.156579	0.849973
-0.056902	10.7538	-2.61543	0.251287	0.933506	0.255777
-19.1469	4.44628	-47.524	0.0902544	0.0164806	-0.995782
4.2902	33.9312	-41.2096	-0.202166	0.320591	0.925392
16.8921	3.52663	-41.0959	-0.052609	0.70752	-0.704732
47.7974	-30.8145	29.7469	-0.761599	-0.0581673	0.645433
-42.1308	-27.2612	43.7057	-0.159046	0.986476	-0.0396148
48.0806	-38.5647	-10.7065	-0.86985	0.381602	0.312636
-48.0429	28.3868	-11.6906	-0.407308	-0.630575	0.660663
-11.9734	-36.862	42.2977	-0.824196	-0.528323	-0.203903
-20.74	-29.1688	-3.81694	0.533361	0.336358	-0.776137
-25.997	19.7758	-42.0646	-0.870504	-0.487565	0.0671098
20.389	-48.3726	11.3831	-0.33478	-0.516731	0.787979
21.8666	4.91909	-3.68715	-0.704166	-0.264707	-0.658848
29.6585	-27.1903	48.841	0.968178	0.0689954	0.240562
37.5641	-28.3944	-30.9751	-0.105216	-0.0283578	0.994045
18.3095	-21.5237	-9.23479	-0.0516596	-0.973286	0.223709
13.0137	-22.4446	1.20202	-0.0370684	-0.760694	0.648052
-46.6943	-21.486	-19.4127	0.113344	0.381516	0.917387
-9.38338	15.5421	-7.27325	0.0940355	0.986813	0.131751
-16.0872	43.8036	12.5595	-0.592726	0.76868	-0.24043
29.0974	-31.1949	-16.6662	0.327607	-0.840093	0.432341
36.0342	38.1957	-16.0373	-0.420463	-0.793287	0.440347
-1.58412	11.0607	37.8833	0.915266	0.225838	0.333593
43.7302	-8.28229	-38.3085	0.900507	0.34651	-0.262714
43.5697	-19.7197	-17.7014	0.295027	-0.692353	0.658488
-36.4069	47.5913	9.7764	0.316198	0.725069	0.611796
3.35985	11.6036	36.3333	-0.00602723	-0.987618	0.156763
-44.4396	13.9108	-34.1542	0.255663	0.650788	-0.714921
-14.8508	-44.4741	30.3894	-0.771519	-0.410255	-0.486261
26.8774	-11.5598	25.1916	0.220446	0.609118	-0.761826
-9.56461	-31.4639	42.9982	0.300269	-0.953836	-0.00600492
22.7707	-44.4312	32.1923	0.199537	0.493908	0.84631
-42.2681	2.9862	-5.74846	0.730877	0.306272	-0.609931
44.6166	-2.28507	34.9707	-0.449707	-0.789085	-0.41846
-42.6934	-7.71687	-33.7505	-0.295639	0.433854	0.851099
-11.3934	4.87777	-35.1606	0.205894	0.974673	-0.0872924
47.3845	-40.7639	25.4444	-0.8275	-0.552805	-0.0982412
34.7163	-36.202	-9.64627	-0.563717	0.322628	-0.760352
-48.4394	-2.05135	-5.11887	-0.238987	-0.458038	0.856205
30.9516	-24.1754	32.3228	0.254778	0.775478	0.577687
7.14163	15.2614	-48.1426	0.74605	0.00356747	-0.66588
1.1383	-10.9694	-43.5722	-0.691768	-0.553844	-0.463372
-15.6709	-4.23601	8.41546	0.208267	0.576968	-0.789768
27.5822	-8.62088	-42.8711	0.701965	0.393158	0.593862
13.5514	-2.3128	-1.58649	0.895752	0.413239	0.163895
28.8025	35.2953	-45.7102	0.308382	-0.948206	0.0761915
42.6433	33.6784	-37.4726	-0.874829	-0.428083	-0.226758
19.0863	19.3932	-24.6731	-0.205386	0.933949	0.292498
-39.5615	19.9554	22.277	-0.919933	-0.273526	-0.280905
4.32114	1.90543	47.1031	-0.00134777	-0.901858	-0.43203
-12.3575	-39.9544	13.363	0.514291	-0.855131	-0.0652369
-11.4986	10.1853	-46.6078	0.688394	-0.579842	0.435771
-6.06933	43.516	-1.84235	0.291003	-0.736131	0.611087
-46.6554	22.0966	38.5383	0.754212	0.246104	-0.608767
-40.525	-13.3535	-12.776	0.74486	0.655478	-0.124628
6.89002	-33.5525	-26.4822	0.138999	0.246366	-0.959158
10.1813	-39.9107	-41.8053	0.669885	-0.691338	0.270752
21.7102	28.1771	26.5894	-0.639279	-0.606165	0.473167
46.0386	37.6171	-2.4567	0.517007	0.819682	-0.246626
19.3141	-7.06325	48.4502	0.541436	-0.0981135	0.834997
17.4157	29.5807	-40.5057	0.331373	0.201962	0.921631
-18.2228	-30.9194	18.6811	0.909406	0.272994	-0.313775
-15.8291	12.0128	13.1956	0.144091	0.855263	-0.497757
31.33	14.3589	-13.7093	0.759818	-0.282864	-0.585375
20.8668	22.8355	21.9387	-0.40914	-0.683334	-0.604697
-40.9108	-19.276	37.3877	-0.191334	-0.487572	0.85186
-18.3914	39.9068	46.4786	0.181565	-0.942758	-0.279717
-11.1952	12.6154	25.6542	0.681031	-0.658522	-0.320227
-33.6073	9.65251	14.2698	0.288842	0.728109	0.621633
12.9375	-20.0349	-41.795	-0.369498	-0.897994	-0.238909
12.3862	46.3823	36.7873	-0.0212386	0.999523	0.0224003
20.882	-20.842	-43.1336	0.453516	0.294786	0.841085
-9.43837	12.3303	17.8807	-0.505375	0.850224	0.147364
-45.2443	-5.34116	-16.7618	0.227873	-0.956306	0.183171
-9.95205	-33.4759	-42.9279	0.152837	-0.39159	0.907358
-37.0148	-25.3851	-13.2024	-0.550815	0.35479	-0.755465
-48.6286	5.22492	-22.2971	-0.69579	-0.688525	0.204473
46.8515	43.0312	39.3198	0.962298	0.261473	-0.0749335
23.5042	-39.5776	-0.0291883	0.869323	0.416771	-0.265668
-11.2276	22.3614	28.9374	0.344036	-0.938942	0.00521638
-4.02106	-14.2539	26.3182	0.267714	-0.437511	0.858436
-16.2353	-42.3734	-43.5254	0.154233	0.987062	0.0438368
-10.3674	-2.81027	17.8065	0.352254	0.786868	-0.506711
-41.4882	0.94696	-36.5362	0.553599	-0.831808	-0.0403055
-9.24852	39.9964	-21.0106	0.463844	0.118203	0.877996
-3.1749	-46.0199	2.60577	0.228983	-0.122111	-0.965741
32.6242	-45.647	-41.1708	-0.747523	0.229599	0.623293
-38.6745	-47.797	-47.1411	0.0909279	-0.119418	0.988672
-48.3562	24.7087	-37.7173	-0.481723	-0.194932	0.854368
0.616146	-35.5204	33.6456	0.270405	0.896649	-0.350574
-19.4479	9.46005	-29.6098	-0.0857331	-0.995862	-0.0301435
-42.1313	42.2262	-22.9817	-0.0279922	0.992149	0.121888
-36.6551	-17.1427	23.2095	0.507423	-0.797045	0.327477
30.1528	-9.62934	-24.845	-0.258114	0.518083	0.815455
42.6181	30.1236	-33.8501	0.0618335	-0.954429	-0.291964
-27.394	-22.0528	-30.8685	0.923233	-0.0745073	0.376949
24.2133	-38.4301	-27.514	0.90227	0.391254	-0.181189
32.0439	-28.103	-26.3094	-0.0499861	0.0281609	0.998353
33.9043	-27.4577	47.4007	-0.0204625	0.642835	-0.765732
45.1885	22.1599	-37.1211	0.990047	-0.093389	-0.105291
29.8326	-46.2895	21.3404	0.440866	0.881042	0.171469
-48.7787	-39.4193	14.5652	0.630377	0.504046	0.590392
-22.7589	-27.0729	46.424	0.306907	0.507928	-0.804871
-48.5509	-45.9216	-12.2068	-0.680801	0.540261	-0.494599
-24.3945	45.698	-31.0847	-0.109587	0.654125	-0.748406
-9.24308	-30.6975	-4.13595	-0.235944	-0.814654	-0.529782
8.8899	42.5172	6.43546	0.0687037	0.985808	-0.153175
30.3774	25.5597	27.3339	-0.657757	0.64738	-0.385039
-44.9335	10.4625	48.8777	0.0400268	-0.0759881	0.996305
-46.5343	6.64953	22.0361	-0.167842	-0.319476	-0.932612
-34.6539	-12.5194	24.7481	-0.564044	-0.774862	-0.285383
35.688	-12.2966	34.3303	0.471845	0.320079	0.82153
1.25167	13.946	-41.7441	0.443933	-0.648808	0.618039
-1.32582	14.3966	-38.6642	-0.219172	-0.358787	0.907323
35.4689	39.0037	-41.9678	-0.398735	-0.852082	-0.339067
-44.6173	-19.2409	-23.6638	0.439361	-0.895592	-0.0698429
0.248208	38.6505	-30.1481	0.707877	0.692858	-0.137324
-42.3178	20.0264	44.4131	-0.706325	0.706931	-0.0367759
34.0176	24.0944	5.87412	0.864295	0.243101	-0.440337
33.8938	26.5616	-36.4779	0.309709	-0.0301349	0.950354
6.92842	40.9092	0.00429028	-0.223141	-0.315185	0.922424
-17.325	27.5957	36.7092	0.9373	0.130255	-0.323268
-31.9961	-20.1541	1.65376	-0.0380965	0.520049	0.853287
-24.7388	27.5216	-32.9511	-0.400365	0.884972	-0.237766
-14.4015	13.9889	-42.949	-0.755569	0.653272	0.0484888
-7.36778	18.3731	-13.1884	0.608811	0.705396	-0.362994
17.9699	-30.3802	-23.5394	0.818926	-0.284942	-0.498165
36.8233	-23.6965	45.4885	0.80184	0.376286	-0.464177
32.235	-38.6805	20.5813	0.877576	0.20611	0.432873
-10.8924	44.2148	-1.85856	-0.546266	0.771785	-0.325487
1.63122	2.14175	-9.95086	-0.00571764	-0.4968	-0.867846
-47.366	33.8183	-31.3566	0.0186841	0.0119666	0.999754
38.3448	-47.1794	-2.50926	0.176498	0.590301	-0.78765
-9.00298	-22.9166	-23.9892	-0.528614	-0.348314	0.774109
7.04739	11.6834	39.0012	-0.36471	0.613611	-0.700334
13.0999	-44.6859	8.37278	0.45764	0.846237	-0.272852
48.913	22.2855	26.9941	0.734764	-0.185455	-0.652478
-23.6279	10.1074	-45.704	-0.304009	-0.286724	-0.908497
-27.141	-6.65917	-35.3829	-0.476306	-0.797683	-0.369911
42.4418	31.4499	-40.1696	0.579216	-0.268473	0.769696
-8.41822	-15.9204	10.9736	0.590053	-0.0981476	0.801376
30.6324	-14.2848	-4.20958	-0.901114	0.299686	0.313339
48.2773	-24.9416	-2.38744	-0.164753	0.357549	0.919247
-3.23348	15.0569	23.6975	0.113749	-0.595984	-0.794899
21.7788	-26.8972	-13.6207	-0.549198	0.117282	0.827421
11.7785	35.2042	-9.30504	0.0599607	-0.0446405	0.997202
-28.8502	35.1157	-36.021	-0.239387	-0.937535	-0.252433
47.1454	-37.5137	23.0879	0.775735	-0.0916233	-0.624372
-47.5601	-15.6532	-32.5728	0.16934	0.554222	0.814961
-33.9415	-22.2129	47.8786	-0.848609	-0.487788	-0.204758
-25.1097	18.3704	-17.0433	-0.530317	-0.0615045	-0.845565
34.8655	0.00134593	17.6734	-0.368047	0.873395	0.31894
-18.3456	-0.722872	41.7333	0.1225	-0.937301	0.326284
28.2685	45.0451	7.78873	0.0954717	0.350196	0.931798
2.96442	17.8225	29.893	0.0321355	0.84273	0.537377
38.3453	-19.4005	16.0958	-0.546286	0.823094	0.155201
-19.9613	0.750798	2.20999	0.127033	0.913377	-0.386789
-6.98078	-1.10533	13.6978	0.34845	0.915073	-0.203039
-32.8944	0.336072	47.0461	0.0198779	-0.817987	-0.574893
-16.4657	15.396	-24.1683	-0.578354	0.79714	0.173423
-17.5886	39.2879	43.2036	-0.844689	0.530245	0.0730865
14.3696	25.1519	-5.79654	-0.372093	-0.30882	-0.875315
-16.9585	-42.1952	42.4821	-0.258816	0.960878	0.0986306
-24.2267	35.0747	38.5257	-0.240002	-0.808667	-0.537081
32.5635	-10.9624	7.3467	-0.162829	0.203167	-0.96551
13.4551	-21.6186	36.9477	-0.40361	-0.528025	0.747187
-19.4506	7.42164	-11.303	-0.961943	0.101087	0.253864
31.7608	-48.5606	36.5932	-0.584499	0.614396	-0.52998
-3.54288	-32.4536	-12.0723	-0.360259	0.209278	0.909074
-5.49832	0.0821817	-45.6777	-0.0259639	-0.10853	0.993754
19.3349	31.495	42.6116	0.0332658	-0.166516	0.985477
13.537	-3.13685	18.762	-0.723469	-0.569686	0.389938
-41.261	28.9061	25.5683	-0.248867	0.568428	0.784191
-47.7805	-44.322	11.6415	0.498953	-0.0470543	-0.86535
39.7468	37.243	-48.3224	0.179149	-0.978497	0.102225
-1.90803	1.69659	-20.9395	-0.932657	-0.356128	0.0576485
-13.9618	31.2474	35.4837	0.254052	0.621079	0.74143
23.7366	14.0068	35.9245	-0.848916	-0.245371	-0.468118
11.3283	-38.5376	-45.5306	0.760144	0.361603	-0.539837
48.2575	4.96559	3.55312	0.272398	-0.876331	0.397295
-46.4217	-24.701	-13.9533	-0.395242	0.893074	0.21495
45.1914	37.8375	31.9113	0.878623	-0.427262	-0.213235
14.9519	45.5779	11.816	-0.18591	0.982277	-0.0238511
-8.48132	46.7989	16.4954	0.604552	0.330801	0.724629
-45.8413	37.5442	4.73692	0.512067	0.617423	0.59714
-45.1622	-13.3653	-42.568	0.027277	-0.178516	0.983559
-17.1002	21.6744	37.6809	0.244854	-0.65539	0.714501
-30.618	-3.5905	2.68623	0.282839	0.92828	-0.24145
-43.695	-41.2637	13.1501	0.659654	-0.459063	-0.595078
-40.2241	-42.0077	-30.8858	-0.0847689	0.344771	0.934851
12.3305	-39.4279	-6.58531	-0.584237	0.811298	-0.0215133
47.3787	-43.238	-17.7494	0.00498459	-0.968607	0.248547
30.2885	20.7155	-21.173	-0.563928	-0.00817816	-0.825784
-6.89703	-36.7674	-23.3755	-0.260618	-0.839887	-0.476097
-39.4031	-33.6072	-34.8328	0.38682	0.397582	-0.832045
14.3353	-29.7679	0.803425	0.922491	0.379621	-0.0699852
20.7688	2.13335	-26.5237	-0.743119	-0.663148	-0.0894888
9.44826	20.5168	18.8873	0.385167	0.481393	-0.787342
-36.867	25.8233	26.6251	-0.264786	-0.355788	0.896272
25.2846	34.6007	33.6189	0.0807984	0.696143	0.713341
43.4004	-2.07028	43.1925	-0.394973	-0.455353	0.797903
-12.1865	-3.69308	48.9561	-0.380585	-0.451019	0.807302
19.0657	-22.4061	20.67	0.214971	-0.717145	-0.662941
46.8942	19.6984	32.9042	0.306191	0.951784	0.0188235
-25.4828	29.2968	48.2984	0.0755054	-0.351188	0.933256
-11.314	-5.3694	-30.471	0.174281	0.166461	-0.970524
38.4909	-33.6021	20.6638	-0.116074	-0.287646	0.950677
-37.0343	24.8477	-7.82085	0.191397	0.902192	-0.386545
30.8545	36.9822	-30.9991	0.299743	0.820424	0.486886
8.47804	13.2653	-45.3999	-0.230964	-0.777439	0.585016
-6.90455	7.66415	1.53135	-0.598072	-0.796985	0.0844068
-12.7135	44.4792	46.8398	-0.258269	0.583079	0.77027
-12.759	14.5434	-24.5678	0.746746	0.615264	-0.252626
-41.0904	12.4361	44.1321	0.440197	-0.64578	-0.623855
40.8152	35.9548	24.4274	-0.649971	0.704757	0.284349
40.1122	-24.3607	-29.9435	-0.470083	0.598896	0.64834
-39.3603	-34.8713	-14.5441	0.194831	0.887359	0.417894
30.305	-22.9042	-38.6979	-0.12688	0.471277	0.872811
-26.5173	-41.0512	47.2858	0.299133	-0.909433	0.288879
-8.51491	16.4283	11.5496	0.272136	-0.500503	0.821851
-4.91329	-39.4777	-29.7878	0.746854	-0.597301	-0.292302
45.6196	-3.18974	-34.3101	0.205808	-0.274679	-0.939252
43.4578	33.0528	29.2348	0.138115	0.943835	-0.300166
-30.1115	40.9639	-7.3306	0.0579551	0.634647	-0.770626
-34.9809	32.7776	-20.3773	-0.339466	-0.120336	-0.932889
38.448	23.8882	4.26354	-0.427552	0.903143	0.0391357
-40.497	33.5294	18.3937	0.655892	0.0123778	0.754753
-6.03958	14.8329	44.4911	0.149961	-0.0276598	0.988305
4.264	37.3171	-45.5616	0.625148	-0.763153	0.163668
2.54826	-20.1993	19.8682	-0.427631	-0.781831	0.453731
-34.9037	23.8889	29.392	0.203077	0.213196	0.955671
-15.69	20.5069	-22.7993	0.714651	0.692885	0.0958326
-0.998578	14.9633	-38.748	-0.446226	-0.893414	-0.051895
-20.7653	33.8533	-46.7856	-0.686118	0.246178	-0.684572
20.9056	47.8739	34.9935	0.806075	0.138722	-0.575325
-48.4732	37.3204	9.88022	0.469565	0.343942	0.81315
4.79189	45.8249	-5.59187	-0.524438	0.702979	0.480401
-25.8159	-9.21618	-39.7605	-0.644515	-0.305783	-0.700783
-30.3263	44.0493	46.5581	-0.749416	-0.376779	-0.544438
-26.8865	-2.40391	-22.6427	-0.216165	0.735408	0.642221
41.9832	11.6939	-47.7554	-0.0755755	-0.880935	-0.467163
22.3737	45.0054	21.7531	-0.406468	-0.912623	0.0436204
48.576	-4.99466	-12.2852	-0.238216	-0.628181	0.740704
-39.1735	23.2415	-27.4334	-0.117383	0.874802	-0.470044
-36.9576	-4.85435	-28.561	-0.201414	0.226682	0.952915
47.0374	-4.32601	-40.2421	-0.965575	-0.183399	-0.184473
7.91612	-48.5356	-43.4187	0.197057	-0.80749	0.555994
-46.6773	-25.35	-3.6334	-0.344155	-0.81261	-0.470343
-37.4362	-6.67482	-8.58557	0.550197	-0.832689	0.0625439
-39.8796	15.4402	38.012	0.168503	0.526345	0.833407
-13.5209	8.42196	0.704413	-0.120506	-0.24313	-0.962479
-12.2747	-18.2058	-3.29167	0.236059	-0.490006	0.839148
-39.5232	-18.6313	40.7152	-0.386646	-0.797346	-0.463405
-2.80684	-8.80334	14.9552	-0.314333	0.631323	-0.708961
18.7612	3.24057	-38.9006	-0.117193	0.870897	-0.477288
39.2017	1.27647	5.77485	0.318301	-0.688565	-0.651585
47.9611	-39.8089	6.24074	0.142004	0.302248	-0.942593
-44.4591	-37.4847	29.8922	-0.076814	0.815136	0.574154
0.908986	-25.9194	-25.7841	-0.900939	0.333934	0.277123
41.3249	-16.7975	38.6576	-0.212349	-0.690322	0.691639
30.3354	18.6831	-1.92191	0.0776632	-0.447067	-0.891122
-17.9617	-42.5931	28.8738	-0.847584	0.510294	-0.145606
27.7482	-33.1147	-38.7591	-0.583246	-0.811769	0.0292489
19.4618	13.0799	1.4391	-0.064326	0.669355	0.740153
-14.5844	-17.1603	-44.3218	-0.0720607	-0.389471	0.918215
-4.48358	-26.9601	5.95614	-0.441497	-0.891371	0.102658
-47.7102	-28.0005	15.1487	-0.943797	0.328215	0.039025
7.53201	-23.4581	26.6656	-0.243412	0.69659	-0.674917
-11.5773	26.4524	-48.2553	0.554799	0.620329	0.554428
11.6402	18.7758	-16.0513	0.609595	0.721943	-0.327402
1.29628	0.109726	-46.3697	0.231362	-0.912325	-0.337839
48.3759	31.1496	-39.9612	0.731522	-0.543652	0.411483
28.2482	9.89624	-24.0745	0.158797	-0.344002	0.925444
38.4906	-19.6434	38.007	-0.289852	0.940232	0.178744
-9.07181	14.7736	-28.1549	0.855678	0.499474	-0.135431
-4.39214	-38.7114	-6.11344	-0.691344	0.114093	-0.713461
-47.4375	-37.4202	14.8876	-0.122509	-0.863753	-0.488798
16.7127	19.1133	40.431	0.134154	0.745164	0.653249
-5.62321	-41.4654	17.8818	0.920001	-0.391739	-0.0117899
-4.87703	19.1762	-12.3439	-0.436454	-0.899619	-0.0139178
28.0731	-28.529	36.7674	-0.591631	-0.177013	0.786536
30.705	-29.1546	18.9154	0.102686	-0.0753366	-0.991857
39.7452	48.095	-20.1898	-0.178703	-0.567684	0.803617
-33.3308	37.5841	9.16826	-0.926212	0.00726323	-0.376934
-44.3253	-20.4892	-25.0596	0.384885	-0.461408	0.799354
-23.4786	24.1202	-14.7695	0.295635	0.951276	0.0876037
19.4094	25.6842	-3.18822	-0.545731	-0.673916	0.498011
-14.7045	-6.6046	-33.0764	-0.866743	-0.48585	-0.112725
-23.2751	36.7737	-25.5403	0.785988	-0.180915	0.59118
43.6083	-17.1048	42.6374	0.586692	-0.661611	0.466972
-17.7371	-38.0332	-34.8931	-0.106399	0.192803	-0.975452
-29.9712	41.6733	-15.0462	0.165554	-0.952424	-0.25589
37.9457	32.417	-15.9527	-0.622832	0.208621	-0.754028
-31.2456	48.0877	-27.3701	0.287311	0.449214	-0.845967
26.9242	-45.2391	1.14224	0.796959	-0.361377	0.484007
-47.1369	-19.7162	-23.7391	0.123732	-0.570147	0.812172
-12.905	48.6947	-47.0564	0.904433	0.415271	-0.0977319
32.9083	-15.0113	-4.65951	-0.554094	0.632351	0.541398
48.8334	10.7151	-16.8873	0.126326	0.949523	-0.287136
-25.7084	5.3219	15.0093	0.0461832	-0.970932	0.234859
-32.0725	36.5863	25.9777	0.323067	-0.182263	-0.928659
-17.9641	-42.3864	18.6494	0.0970893	-0.67108	0.735
15.9912	44.5608	2.06491	-0.282495	0.598467	0.749689
-48.963	-35.6863	1.15113	-0.344278	0.408596	0.845294
-27.3316	40.2394	4.91356	-0.003674	0.62348	-0.78183
22.8122	42.1039	34.1988	-0.294789	0.565753	0.77008
48.0746	-19.8026	33.892	0.399492	-0.916626	-0.0142168
-47.9833	-35.8958	-30.1208	-0.901681	0.138661	-0.409565
-3.64135	-36.0639	29.5958	-0.236633	-0.8356	-0.49576
28.4728	-12.7708	-14.0838	0.15119	0.927994	-0.340542
-5.51931	4.15818	-26.499	-0.0464629	-0.760779	-0.647346
-28.5432	35.1956	-19.8839	0.39919	-0.461776	-0.792092
39.1078	2.18526	-24.3245	-0.437072	0.336261	-0.834204
-7.82883	2.22375	-11.0093	-0.220585	-0.974239	-0.0469207
42.3238	23.8937	-19.7714	-0.524249	0.0730352	-0.848427
-1.76414	-2.29564	-26.669	0.0514377	0.872448	0.485993
-16.5668	-3.22255	2.52996	0.0178423	-0.677216	-0.735568
-31.6763	-2.20438	15.6357	0.153397	-0.987413	0.038528
-12.7956	43.1558	28.5733	-0.817636	0.32509	-0.475172
-32.2013	22.6271	-33.199	0.487475	-0.306557	-0.817551
2.7164	-31.8937	19.9607	-0.588681	0.650176	-0.480339
25.2189	-11.4354	6.15478	0.0336203	0.963336	-0.266184
-43.6665	-21.3291	-40.6615	-0.349729	-0.127566	0.928125
-18.9895	19.8436	10.5638	-0.45665	0.886912	0.0697031
19.0027	13.1659	-14.544	0.760296	-0.460295	0.458344
48.2327	-37.5998	32.1618	0.590063	-0.374123	0.715442
-27.4378	-5.16506	-20.0622	0.908976	0.295545	-0.293965
24.0937	12.1602	26.7349	0.149764	-0.520927	-0.840361
-9.27211	48.3661	20.8892	-0.0544892	0.99323	0.102589
-29.7003	-32.8367	-5.48521	-0.112036	-0.713422	-0.69172
-13.8978	18.8812	11.6226	0.0740252	0.997105	-0.0173767
-42.9386	-4.90143	-48.8143	-0.661553	-0.521983	-0.538406
12.2177	0.43361	-21.1419	0.309658	-0.840603	-0.444407
20.5578	30.4456	47.7032	-0.65363	-0.637977	0.407128
-17.88	0.446765	11.8676	0.693331	-0.680253	-0.237798
16.5775	-0.322002	23.2694	0.101182	-0.989464	-0.103554
-0.262137	21.2417	-30.8972	0.317818	-0.93199	0.174318
28.6772	-3.66606	30.2645	-0.903801	-0.111029	-0.413298
6.41056	36.0633	29.629	0.582384	0.422161	0.694701
-21.7018	-42.6385	45.7938	0.641447	0.70461	-0.303431
21.8145	-7.53474	15.6734	0.686837	0.71521	0.129341
-15.5644	-1.47181	-38.2295	0.777049	-0.450251	0.439851
-15.3771	-38.2556	11.2056	-0.154963	0.281489	-0.946969
12.4825	31.3037	-7.35028	0.581169	-0.812991	-0.0358925
11.1842	-35.5778	42.098	0.419244	0.329785	-0.845858
-25.9496	30.0012	-7.22552	-0.55526	-0.646351	-0.523371
46.3212	-19.2624	-34.9853	-0.135559	-0.470602	-0.87187
-33.5775	-39.5868	10.3502	-0.0519863	-0.805869	0.589807
45.6885	15.8253	-2.58802	-0.113088	-0.917652	0.380954
26.316	43.125	3.77502	-0.555518	-0.67217	0.489477
23.1083	15.9381	45.2418	0.358582	0.448237	0.818842
-10.2198	-48.6278	-5.23153	0.0123966	0.0267669	0.999565
0.552219	-15.0034	5.51438	0.166905	-0.215233	-0.962194
-37.2437	46.4806	-12.1835	-0.491557	-0.442473	0.75006
4.40756	8.66331	1.24024	0.2771	-0.857728	0.433034
-2.49595	31.7152	-17.76	-0.082253	0.301857	-0.949798
39.28	29.0349	11.9791	0.60051	0.651753	-0.463256
-44.7067	44.4589	21.3938	-0.178285	-0.515267	-0.838281
14.6449	41.1459	-11.7824	-0.0275695	-0.996352	0.0807685
-36.9446	18.4604	-17.6588	-0.15735	-0.832096	-0.531844
15.8319	-7.43286	47.2807	-0.192115	-0.290774	-0.937306
12.0722	31.3488	47.6544	0.609007	0.208591	-0.765245
-42.1608	-17.1004	-16.3505	-0.456034	0.58007	0.674946
12.355	-5.34259	-18.8714	-0.766608	-0.544432	-0.340449
-48.8299	48.0665	38.7934	-0.922199	-0.294175	-0.251016
1.41182	-3.43099	21.5071	0.784902	0.430944	-0.445215
32.6533	-13.1525	1.54044	0.484723	-0.621607	0.615344
-4.36916	-8.8577	-3.00216	-0.121163	0.837701	-0.532519
-31.9769	-43.2143	-10.8578	0.0188717	-0.142644	-0.989594
5.24224	-31.1574	-41.3989	-0.0650645	0.746469	0.662231
36.5849	33.676	0.169729	-0.371369	-0.065599	0.926165
34.8641	-3.25331	-17.4829	0.0304142	0.635107	-0.771825
33.5171	3.58735	14.4181	0.433628	-0.367703	-0.822655
-31.8349	-33.0591	-39.926	-0.0130415	-0.00218354	-0.999913
-1.7048	-32.8875	-40.861	-0.726216	-0.687181	0.0198029
-11.9129	17.5258	4.70953	0.23729	0.912082	0.334364
-39.4073	1.17755	40.5586	-0.00902701	-0.335347	0.942051
11.1346	45.8099	-17.3006	-0.0539896	0.23734	0.969925
-40.8691	-35.1685	-11.5134	-0.292327	-0.629585	0.719839
-2.72533	19.0753	6.33068	-0.00729899	-0.838491	0.544867
4.87725	6.65867	-8.99481	0.0758016	-0.898453	-0.432477
-43.9545	-7.4787	36.7534	-0.589491	0.0101964	0.80771
-12.4359	-22.9631	-8.66077	-0.803276	0.566214	0.184795
-47.0193	-5.79651	7.28161	-0.391545	-0.0958889	-0.915149
-37.9438	41.5002	23.3956	0.642521	0.0770387	0.762385
-29.8032	-19.4142	-8.08017	-0.768246	-0.639892	0.0183224
23.9078	-9.82005	42.0989	0.369302	-0.366625	-0.853933
15.4649	-47.6869	38.9073	0.447238	-0.789975	-0.419425
47.1657	-39.5545	-45.2627	0.87993	-0.165001	-0.445532
-13.3492	6.72167	22.8141	0.808482	-0.240009	-0.537357
41.983	-37.4026	-19.5288	0.735024	0.674923	0.0649499
-16.0133	-32.3556	21.994	0.735654	0.588401	0.335555
-28.2614	4.20997	48.0324	-0.23961	-0.547141	-0.802012
12.0793	6.19217	-6.76559	-0.343715	0.807631	0.479159
-29.6406	17.2499	-14.2669	0.821256	-0.547435	0.160792
42.7565	36.4482	15.3204	0.00983372	0.999952	-0.000244724
-14.3252	11.3545	-43.5012	-0.205955	-0.493911	0.844769
-21.2278	-22.1822	-42.1866	0.311393	0.911341	0.269245
-31.3221	-24.0179	-32.7396	0.707243	0.678357	0.199096
-27.5833	11.6344	22.9836	0.374627	0.520731	-0.767134
44.2323	4.61589	34.5825	0.206931	0.548448	0.810176
-24.298	37.6041	-46.7746	-0.00409435	0.758776	-0.651338
46.6976	-39.6589	6.4369	-0.801823	-0.377681	0.463074
45.7285	21.4219	-36.3724	0.0938074	-0.686489	0.721064
-10.0386	40.7828	29.879	0.024023	-0.928779	-0.369855
24.696	34.5378	17.3257	0.190708	-0.753065	0.629702
-8.98509	-28.7889	-20.3214	0.395658	0.713197	-0.578623
-3.48474	-1.01526	6.49795	-0.291809	-0.0230618	0.956199
3.33017	16.6642	31.4815	0.366647	-0.732936	0.573039
19.5921	38.0824	-5.88559	0.0537603	-0.844167	-0.533378
-6.42583	33.3132	47.7318	-0.0286778	-0.867793	-0.496097
-20.8448	-39.9862	36.3344	-0.703039	0.126251	-0.699855
-18.6179	-42.2902	45.677	-0.235155	0.960995	-0.145572
36.8205	-45.5632	18.0974	-0.392993	-0.800651	0.452233
-48.5534	-6.60026	9.87875	-0.567925	0.597761	0.565811
30.3271	-30.9057	-4.58497	0.276668	0.0172991	-0.96081
-1.34879	9.11067	15.6276	-0.432193	-0.858125	0.277184
27.3313	-43.3756	-34.3892	-0.602113	-0.289765	-0.743973
-15.1722	8.95609	31.2765	0.979417	-0.0619467	0.192105
-32.6922	-20.4533	20.3574	-0.716828	0.506614	0.479061
10.4237	22.1223	4.66914	-0.208925	-0.348613	0.913685
9.15401	-47.724	13.6844	-0.761312	0.588869	0.271363
-3.51312	-17.3404	20.3957	-0.279166	-0.672929	0.685005
-6.83762	-29.5213	23.834	-0.417667	-0.517541	0.746797
-37.7417	-29.0733	-31.7677	0.70379	0.632157	0.324125
21.1386	-47.7477	-13.672	-0.0472453	-0.954891	-0.293175
-32.4479	-0.0949923	44.4402	-0.180044	0.269243	0.946093
32.1812	-21.7652	-47.9369	-0.725802	-0.500693	-0.471718
46.7935	12.0641	10.0207	0.251079	0.964232	-0.0849452
